ply
format ascii 1.0
comment written by YOUR_NAME
element vertex 1660
property float32 x
property float32 y
property float32 z
end_header
-0.816117 -4.768092 -0.501593
-0.774477 -4.620871 -0.508187
-0.835302 -4.620871 -0.515411
-0.792277 -4.473650 -0.521860
-0.854487 -4.473650 -0.529230
-0.810077 -4.326428 -0.535531
-0.873671 -4.326428 -0.543050
-0.827877 -4.179208 -0.549204
-0.892856 -4.179208 -0.556870
-0.479697 -7.418071 -0.254027
-0.499250 -7.270850 -0.267886
-0.518803 -7.123629 -0.281744
-0.616568 -6.387524 -0.351035
-0.636120 -6.240303 -0.364893
-0.655673 -6.093081 -0.378751
-0.675226 -5.945860 -0.392609
-0.694779 -5.798640 -0.406467
-0.753438 -5.356976 -0.448042
-0.772991 -5.209754 -0.461900
-0.812097 -4.915313 -0.489617
-0.831650 -4.768092 -0.503475
-0.851203 -4.620871 -0.517332
-0.909862 -4.179208 -0.558908
0.131486 -7.711921 -0.183600
0.135039 -7.564701 -0.196132
0.138591 -7.417479 -0.208664
0.142143 -7.270257 -0.221196
0.145696 -7.123037 -0.233727
0.149248 -6.975816 -0.246259
0.152800 -6.828596 -0.258791
0.156352 -6.681374 -0.271323
0.159905 -6.534153 -0.283855
0.163457 -6.386933 -0.296386
0.167009 -6.239712 -0.308918
0.170562 -6.092491 -0.321450
0.174114 -5.945269 -0.333982
0.177666 -5.798048 -0.346514
0.181218 -5.650827 -0.359046
0.184770 -5.503607 -0.371578
0.188323 -5.356386 -0.384110
0.191875 -5.209165 -0.396641
0.195427 -5.061944 -0.409172
0.198980 -4.914722 -0.421704
0.202532 -4.767502 -0.434236
0.206084 -4.620282 -0.446768
0.209637 -4.473061 -0.459299
0.213189 -4.325840 -0.471831
0.216741 -4.178618 -0.484363
-0.154220 -7.712512 -0.188939
-0.215835 -7.712512 -0.196972
-0.161268 -7.565291 -0.201470
-0.225571 -7.565291 -0.209788
-0.168316 -7.418071 -0.214001
-0.235307 -7.418071 -0.222605
-0.175364 -7.270850 -0.226532
-0.245043 -7.270850 -0.235421
-0.182413 -7.123629 -0.239062
-0.254779 -7.123629 -0.248237
-0.189461 -6.976408 -0.251593
-0.264515 -6.976408 -0.261053
-0.196509 -6.829186 -0.264125
-0.274251 -6.829186 -0.273870
-0.203557 -6.681966 -0.276655
-0.283987 -6.681966 -0.286686
-0.210605 -6.534745 -0.289186
-0.293723 -6.534745 -0.299502
-0.217653 -6.387524 -0.301717
-0.303459 -6.387524 -0.312318
-0.224701 -6.240303 -0.314248
-0.313195 -6.240303 -0.325134
-0.231749 -6.093081 -0.326779
-0.322931 -6.093081 -0.337951
-0.238797 -5.945860 -0.339310
-0.332667 -5.945860 -0.350767
-0.245845 -5.798640 -0.351840
-0.342403 -5.798640 -0.363583
-0.252893 -5.651419 -0.364371
-0.352139 -5.651419 -0.376399
-0.259941 -5.504197 -0.376902
-0.361875 -5.504197 -0.389215
-0.266989 -5.356976 -0.389433
-0.371611 -5.356976 -0.402032
-0.274037 -5.209754 -0.401964
-0.381347 -5.209754 -0.414848
-0.281085 -5.062534 -0.414493
-0.391083 -5.062534 -0.427662
-0.288134 -4.915313 -0.427024
-0.400819 -4.915313 -0.440479
-0.295182 -4.768092 -0.439556
-0.410556 -4.768092 -0.453296
-0.302230 -4.620871 -0.452087
-0.420292 -4.620871 -0.466112
-0.309278 -4.473650 -0.464616
-0.430028 -4.473650 -0.478927
-0.316326 -4.326428 -0.477147
-0.439764 -4.326428 -0.491743
-0.323374 -4.179208 -0.489679
-0.449500 -4.179208 -0.504559
0.344209 -3.552471 -0.529496
0.183803 -3.552671 -0.531306
0.305938 -3.415189 -0.535535
0.156167 -3.415531 -0.538622
0.797932 -3.280195 -0.640650
0.803611 -3.280195 -0.780736
0.730361 -3.416990 -0.627823
0.736115 -3.416990 -0.766667
-0.898527 -3.553784 -0.606485
-0.969999 -3.553784 -0.614874
-0.911233 -3.416989 -0.618570
-0.984462 -3.416989 -0.627172
-0.988731 -3.553784 -0.617104
-1.003662 -3.416989 -0.629460
0.621888 -3.416990 -0.865520
0.023396 -3.552871 -0.533117
-0.160107 -3.553327 -0.537230
0.006396 -3.415873 -0.541710
-0.168139 -3.416431 -0.546744
-0.343611 -3.553784 -0.541342
-0.482340 -3.553784 -0.557629
-0.342673 -3.416989 -0.551777
-0.484813 -3.416989 -0.568474
0.743334 -3.280195 -0.601429
0.676124 -3.416990 -0.589800
0.414487 -3.552909 -0.533444
0.411255 -3.415789 -0.540948
0.183803 3.574046 -0.531304
0.344209 3.573844 -0.529493
0.156168 3.436905 -0.538620
0.305939 3.436564 -0.535533
0.803612 3.301569 -0.780734
0.797933 3.301569 -0.640647
0.736115 3.438364 -0.766663
0.730361 3.438364 -0.627819
-0.969998 3.575159 -0.614870
-0.898526 3.575159 -0.606481
-0.984461 3.438365 -0.627169
-0.911232 3.438365 -0.618567
-0.988730 3.575159 -0.617101
-1.003661 3.438365 -0.629456
0.621889 3.438364 -0.865516
-0.160106 3.574703 -0.537227
0.023398 3.574246 -0.533114
-0.168137 3.437806 -0.546740
0.006398 3.437248 -0.541707
-0.482339 3.575159 -0.557625
-0.343609 3.575159 -0.541340
-0.484812 3.438364 -0.568471
-0.342672 3.438364 -0.551773
0.743334 3.301569 -0.601427
0.676125 3.438364 -0.589796
0.414487 3.574283 -0.533442
0.411255 3.437164 -0.540946
-0.793094 2.897268 -0.642484
-0.793095 -2.875893 -0.642487
-0.939715 -2.619710 -0.689009
-1.017425 -2.619710 -0.698852
-1.037816 -2.619710 -0.701469
-1.017424 2.641084 -0.698850
-0.939715 2.641084 -0.689006
0.627114 2.060119 -1.033185
0.755398 1.960595 -0.917600
0.634799 1.960595 -1.045293
0.567663 1.960726 -0.659224
0.634800 1.960590 -0.664482
0.416018 1.928103 -0.649657
0.411315 2.004156 -0.643969
-0.155561 1.997469 -0.653618
0.000668 1.996569 -0.645634
-0.001388 2.049048 -0.641733
-0.157592 2.049939 -0.649666
0.758607 1.861068 -0.777328
0.750463 1.960589 -0.767846
-1.010451 2.103290 -0.747201
-1.009771 2.050830 -0.751918
-0.930359 2.050830 -0.741156
-0.931191 2.103290 -0.736521
-1.031253 2.103290 -0.750041
0.128866 1.995831 -0.639083
0.257063 1.995091 -0.632532
0.254967 2.047586 -0.628713
0.126789 2.048316 -0.635223
-0.466225 1.998370 -0.682648
-0.311791 1.998370 -0.661601
-0.313796 2.050830 -0.657600
-0.467937 2.050830 -0.678489
0.627114 -2.038745 -1.033187
0.634799 -1.939221 -1.045294
0.755397 -1.939220 -0.917601
0.634800 -1.939218 -0.664484
0.567662 -1.939353 -0.659226
0.416017 -1.906731 -0.649659
0.411314 -1.982781 -0.643971
-0.155562 -1.976096 -0.653620
-0.157593 -2.028564 -0.649669
-0.001388 -2.027673 -0.641736
0.000667 -1.975195 -0.645637
0.758606 -1.839694 -0.777331
0.750461 -1.939216 -0.767848
-1.010451 -2.081915 -0.747204
-0.931191 -2.081915 -0.736523
-0.930360 -2.029455 -0.741158
-1.009771 -2.029455 -0.751920
0.128865 -1.974456 -0.639086
0.126788 -2.026942 -0.635226
0.254966 -2.026210 -0.628716
0.257062 -1.973718 -0.632535
-0.466226 -1.976996 -0.682651
-0.467938 -2.029455 -0.678491
-0.313798 -2.029455 -0.657602
-0.311792 -1.976996 -0.661603
0.598950 -1.513050 -0.695007
0.595198 -1.515191 -0.691120
0.607018 -1.403110 -0.703345
0.603320 -1.404522 -0.699515
0.529290 -1.302513 -0.700803
0.521719 -1.422560 -0.691811
0.514148 -1.542607 -0.682820
-0.130597 -1.331014 -0.702197
0.025938 -1.330057 -0.693596
-0.136331 -1.479167 -0.691040
0.020134 -1.478221 -0.682582
-0.142064 -1.627321 -0.679884
0.014330 -1.626387 -0.671567
-1.000726 -1.331971 -0.814628
-0.919304 -1.331971 -0.802780
-1.002647 -1.480112 -0.801309
-0.921652 -1.480112 -0.789692
-1.004568 -1.628253 -0.787990
-0.924001 -1.628253 -0.776604
-1.022104 -1.331971 -0.817778
-1.023911 -1.480112 -0.804398
-1.025719 -1.628253 -0.791018
0.154386 -1.329271 -0.686538
0.282834 -1.328485 -0.679481
0.148525 -1.477446 -0.675640
0.276915 -1.476671 -0.668699
0.142664 -1.625621 -0.664742
0.270997 -1.624855 -0.657917
-0.445175 -1.331971 -0.733793
-0.287132 -1.331971 -0.710798
-0.450010 -1.480112 -0.722048
-0.292795 -1.480113 -0.699499
-0.454844 -1.628253 -0.710302
-0.298459 -1.628253 -0.688201
0.595199 1.536564 -0.691119
0.598950 1.534422 -0.695005
0.603320 1.425896 -0.699514
0.607019 1.424482 -0.703343
0.529290 1.323885 -0.700801
0.521719 1.443933 -0.691810
0.514148 1.563981 -0.682818
0.025938 1.351429 -0.693594
-0.130597 1.352387 -0.702195
0.020135 1.499594 -0.682580
-0.136330 1.500540 -0.691039
0.014331 1.647760 -0.671565
-0.142064 1.648695 -0.679882
-0.919304 1.353344 -0.802779
-1.000726 1.353345 -0.814627
-0.921652 1.501486 -0.789690
-1.002647 1.501486 -0.801308
-0.924000 1.649629 -0.776602
-1.004568 1.649629 -0.787989
-1.023911 1.501486 -0.804396
-1.025718 1.649629 -0.791016
0.282834 1.349858 -0.679479
0.154386 1.350645 -0.686537
0.276916 1.498044 -0.668697
0.148525 1.498819 -0.675638
0.270997 1.646228 -0.657915
0.142664 1.646994 -0.664740
-0.287131 1.353344 -0.710796
-0.445174 1.353344 -0.733792
-0.292795 1.501486 -0.699498
-0.450009 1.501486 -0.722046
-0.298458 1.649628 -0.688199
-0.454844 1.649628 -0.710300
0.296320 -0.965929 -0.705859
0.296321 0.987304 -0.705859
0.572418 -3.907317 -0.715319
0.462367 -3.907314 -0.806479
0.564287 -4.058772 -0.698850
0.456550 -4.058769 -0.788455
0.556155 -4.210225 -0.682381
0.450734 -4.210223 -0.770429
0.548024 -4.361679 -0.665912
0.444917 -4.361677 -0.752405
0.539893 -4.513133 -0.649443
0.439100 -4.513130 -0.734378
0.531761 -4.664587 -0.632974
0.433283 -4.664584 -0.716354
0.523630 -4.816040 -0.616506
0.427466 -4.816038 -0.698329
0.515499 -4.967494 -0.600037
0.421649 -4.967492 -0.680304
0.507368 -5.118948 -0.583568
0.415832 -5.118945 -0.662278
0.499236 -5.270401 -0.567099
0.410015 -5.270399 -0.644253
0.491105 -5.421854 -0.550630
0.404198 -5.421852 -0.626228
0.482974 -5.573308 -0.534161
0.398381 -5.573306 -0.608203
0.474843 -5.724762 -0.517692
0.392564 -5.724760 -0.590177
0.466711 -5.876216 -0.501223
0.386747 -5.876214 -0.572152
0.458580 -6.027669 -0.484754
0.380930 -6.027668 -0.554127
0.450449 -6.179123 -0.468285
0.375113 -6.179121 -0.536101
0.442317 -6.330578 -0.451816
0.369296 -6.330575 -0.518076
0.434186 -6.482032 -0.435347
0.363479 -6.482029 -0.500051
0.426054 -6.633485 -0.418878
0.357663 -6.633483 -0.482026
0.417923 -6.784939 -0.402409
0.351846 -6.784938 -0.464000
0.409792 -6.936393 -0.385940
0.346029 -6.936392 -0.445975
0.401660 -7.087847 -0.369471
0.340212 -7.087846 -0.427950
0.393529 -7.239300 -0.353002
0.334395 -7.239300 -0.409924
0.385398 -7.390754 -0.336534
0.328578 -7.390754 -0.391899
0.377266 -7.542208 -0.320065
0.322761 -7.542208 -0.373873
0.369135 -7.693662 -0.303596
0.316944 -7.693662 -0.355848
0.407047 -4.058270 -0.495425
0.456550 -4.058780 -0.500024
0.400219 -4.209722 -0.482509
0.450733 -4.210233 -0.487130
0.393391 -4.361172 -0.469591
0.444916 -4.361686 -0.474234
0.386564 -4.512621 -0.456674
0.439099 -4.513139 -0.461340
0.379736 -4.664073 -0.443759
0.433282 -4.664592 -0.448444
0.372908 -4.815524 -0.430842
0.427466 -4.816045 -0.435551
0.366080 -4.966974 -0.417925
0.421649 -4.967498 -0.422655
0.359253 -5.118423 -0.405009
0.415832 -5.118951 -0.409761
0.352425 -5.269874 -0.392092
0.410015 -5.270404 -0.396866
0.345597 -5.421325 -0.379175
0.404198 -5.421856 -0.383972
0.338770 -5.572774 -0.366259
0.398381 -5.573309 -0.371077
0.331942 -5.724225 -0.353342
0.392564 -5.724762 -0.358182
0.325114 -5.875676 -0.340425
0.386747 -5.876215 -0.345287
0.318286 -6.027127 -0.327509
0.380930 -6.027668 -0.332393
0.311459 -6.178576 -0.314592
0.375113 -6.179121 -0.319498
0.304631 -6.330027 -0.301675
0.369296 -6.330575 -0.306603
0.297803 -6.481478 -0.288759
0.363479 -6.482028 -0.293708
0.290975 -6.632929 -0.275842
0.357662 -6.633481 -0.280814
0.284148 -6.784379 -0.262926
0.351845 -6.784934 -0.267919
0.277320 -6.935830 -0.250009
0.346028 -6.936387 -0.255024
0.270492 -7.087281 -0.237093
0.340211 -7.087841 -0.242130
0.263665 -7.238730 -0.224176
0.334395 -7.239294 -0.229235
0.256837 -7.390182 -0.211259
0.328578 -7.390747 -0.216340
0.250009 -7.541633 -0.198343
0.322761 -7.542200 -0.203445
0.243182 -7.693083 -0.185426
0.316944 -7.693654 -0.190551
0.376888 -4.664066 -0.446262
0.383716 -4.512616 -0.459179
0.558788 -4.058777 -0.568832
0.550855 -4.210231 -0.555122
0.542921 -4.361684 -0.541413
0.534987 -4.513138 -0.527705
0.527053 -4.664591 -0.513996
0.519119 -4.816045 -0.500286
0.511185 -4.967498 -0.486579
0.503251 -5.118951 -0.472870
0.495318 -5.270405 -0.459161
0.487384 -5.421858 -0.445452
0.479450 -5.573311 -0.431743
0.471515 -5.724763 -0.418034
0.463582 -5.876218 -0.404325
0.455648 -6.027671 -0.390616
0.447714 -6.179123 -0.376907
0.439780 -6.330576 -0.363198
0.431846 -6.482030 -0.349489
0.423912 -6.633483 -0.335781
0.415978 -6.784936 -0.322072
0.408044 -6.936389 -0.308363
0.400110 -7.087843 -0.294654
0.392176 -7.239296 -0.280945
0.384242 -7.390749 -0.267236
0.376308 -7.542202 -0.253527
0.368374 -7.693656 -0.239818
0.461673 3.927522 -0.806476
0.571724 3.927524 -0.715315
0.455855 4.079019 -0.788451
0.563591 4.079021 -0.698846
0.450037 4.230516 -0.770425
0.555459 4.230518 -0.682377
0.444219 4.382013 -0.752400
0.547326 4.382015 -0.665908
0.438401 4.533510 -0.734375
0.539194 4.533512 -0.649439
0.432583 4.685008 -0.716349
0.531061 4.685009 -0.632970
0.426765 4.836505 -0.698324
0.522929 4.836505 -0.616501
0.420947 4.988001 -0.680298
0.514796 4.988002 -0.600032
0.415129 5.139498 -0.662273
0.506664 5.139499 -0.583563
0.409311 5.290996 -0.644248
0.498531 5.290996 -0.567094
0.403493 5.442493 -0.626222
0.490399 5.442493 -0.550625
0.397675 5.593990 -0.608197
0.482267 5.593990 -0.534155
0.391857 5.745487 -0.590171
0.474134 5.745487 -0.517686
0.386039 5.896985 -0.572145
0.466002 5.896984 -0.501217
0.380221 6.048482 -0.554120
0.457869 6.048481 -0.484748
0.374403 6.199978 -0.536095
0.449737 6.199977 -0.468279
0.368584 6.351475 -0.518069
0.441604 6.351474 -0.451810
0.362766 6.502973 -0.500044
0.433472 6.502971 -0.435341
0.356948 6.654470 -0.482018
0.425339 6.654468 -0.418872
0.351130 6.805967 -0.463993
0.417207 6.805965 -0.402403
0.345312 6.957464 -0.445968
0.409074 6.957462 -0.385934
0.339494 7.108962 -0.427942
0.400942 7.108959 -0.369465
0.333676 7.260458 -0.409917
0.392809 7.260457 -0.352996
0.327858 7.411955 -0.391891
0.384677 7.411953 -0.336527
0.322039 7.563452 -0.373866
0.376545 7.563450 -0.320059
0.316221 7.714950 -0.355841
0.368412 7.714947 -0.303590
0.455855 4.079030 -0.500021
0.406701 4.078521 -0.495421
0.450037 4.230526 -0.487126
0.399872 4.230015 -0.482504
0.444218 4.382022 -0.474231
0.393043 4.381508 -0.469588
0.438400 4.533518 -0.461336
0.386215 4.533002 -0.456671
0.432582 4.685015 -0.448441
0.379386 4.684497 -0.443754
0.426764 4.836511 -0.435546
0.372557 4.835990 -0.430837
0.420946 4.988008 -0.422651
0.365728 4.987484 -0.417921
0.415128 5.139505 -0.409756
0.358899 5.138978 -0.405004
0.409310 5.291000 -0.396860
0.352070 5.290473 -0.392086
0.403492 5.442497 -0.383965
0.345241 5.441966 -0.379169
0.397673 5.593994 -0.371072
0.338412 5.593460 -0.366253
0.391855 5.745491 -0.358177
0.331583 5.744953 -0.353337
0.386037 5.896986 -0.345281
0.324754 5.896446 -0.340420
0.380219 6.048483 -0.332386
0.317925 6.047941 -0.327503
0.374401 6.199979 -0.319491
0.311097 6.199434 -0.314586
0.368583 6.351475 -0.306596
0.304268 6.350929 -0.301670
0.362765 6.502973 -0.293702
0.297439 6.502422 -0.288753
0.356947 6.654468 -0.280807
0.290610 6.653917 -0.275836
0.351129 6.805965 -0.267912
0.283781 6.805410 -0.262919
0.345311 6.957460 -0.255017
0.276952 6.956903 -0.250003
0.339493 7.108957 -0.242122
0.270123 7.108396 -0.237086
0.333675 7.260454 -0.229228
0.263294 7.259891 -0.224169
0.327857 7.411949 -0.216333
0.256465 7.411383 -0.211252
0.322039 7.563446 -0.203438
0.249636 7.562877 -0.198336
0.316221 7.714942 -0.190543
0.242807 7.714370 -0.185419
0.558093 4.079027 -0.568827
0.550158 4.230522 -0.555118
0.542223 4.382020 -0.541410
0.534288 4.533515 -0.527700
0.526353 4.685011 -0.513991
0.518418 4.836508 -0.500282
0.510483 4.988004 -0.486573
0.502548 5.139501 -0.472864
0.494613 5.290998 -0.459154
0.486677 5.442495 -0.445445
0.478742 5.593990 -0.431736
0.470807 5.745487 -0.418027
0.462872 5.896984 -0.404318
0.454937 6.048481 -0.390609
0.447002 6.199977 -0.376900
0.439067 6.351473 -0.363192
0.431132 6.502970 -0.349483
0.423197 6.654466 -0.335773
0.415262 6.805963 -0.322064
0.407327 6.957460 -0.308356
0.399392 7.108957 -0.294646
0.391457 7.260454 -0.280937
0.383522 7.411951 -0.267229
0.375586 7.563447 -0.253520
0.367651 7.714943 -0.239811
0.795691 1.467496 -0.967778
0.673091 1.467504 -1.105282
0.608422 1.467159 -0.697011
0.673092 1.467486 -0.702093
0.801756 1.336360 -0.827325
0.791025 1.467493 -0.814831
0.672964 -1.445250 -1.105284
0.795564 -1.445242 -0.967779
0.672965 -1.445233 -0.702095
0.609669 -1.444907 -0.697013
0.801588 -1.314534 -0.827327
0.790898 -1.445239 -0.814833
-0.424518 -7.867598 -0.211712
-0.438124 -7.867704 -0.213271
-0.443985 -7.721025 -0.225510
-0.457745 -7.721200 -0.227101
-0.463452 -7.574452 -0.239307
-0.477365 -7.574697 -0.240931
-0.658120 -6.108727 -0.377278
-0.673574 -6.109658 -0.379234
-0.677587 -5.962154 -0.391075
-0.693195 -5.963154 -0.393064
-0.735987 -5.522437 -0.432467
-0.752057 -5.523642 -0.434555
-0.755454 -5.375865 -0.446264
-0.771678 -5.377139 -0.448385
-0.454901 -7.867840 -0.215193
-0.514333 -7.428583 -0.256807
-0.534144 -7.282163 -0.270677
-0.553954 -7.135744 -0.284549
-0.573765 -6.989324 -0.298420
-0.593576 -6.842905 -0.312291
-0.613387 -6.696485 -0.326162
-0.633197 -6.550066 -0.340033
-0.653008 -6.403646 -0.353904
-0.672819 -6.257226 -0.367775
-0.732251 -5.817967 -0.409388
-0.752061 -5.671549 -0.423259
-0.791683 -5.378710 -0.451001
-1.053258 -5.399190 -0.483108
-1.031295 -5.544508 -0.468958
-1.009333 -5.689826 -0.454808
-0.987370 -5.835144 -0.440658
-0.965407 -5.980461 -0.426507
-0.943444 -6.125779 -0.412357
-0.921481 -6.271097 -0.398207
-0.899519 -6.416414 -0.384057
-0.877556 -6.561732 -0.369907
-0.855593 -6.707048 -0.355756
-0.833630 -6.852366 -0.341606
-0.811667 -6.997684 -0.327456
-0.789705 -7.143002 -0.313306
-0.767742 -7.288319 -0.299155
-0.745779 -7.433637 -0.285005
-0.723816 -7.578955 -0.270854
-0.701854 -7.724272 -0.256704
-0.557786 -7.868664 -0.226981
-0.578760 -7.722763 -0.241102
-0.599735 -7.576862 -0.255223
-0.620710 -7.430961 -0.269344
-0.641685 -7.285058 -0.283465
-0.662659 -7.139158 -0.297586
-0.683634 -6.993257 -0.311707
-0.704609 -6.847356 -0.325829
-0.725584 -6.701455 -0.339950
-0.746558 -6.555552 -0.354071
-0.767533 -6.409652 -0.368192
-0.788508 -6.263751 -0.382313
-0.809483 -6.117850 -0.396434
-0.830457 -5.971949 -0.410555
-0.851432 -5.826046 -0.424677
-0.872407 -5.680146 -0.438798
-0.893382 -5.534245 -0.452919
-0.914357 -5.388344 -0.467040
-0.438120 7.889078 -0.213263
-0.424515 7.888971 -0.211706
-0.457741 7.742574 -0.227093
-0.454898 7.889213 -0.215186
-0.474708 7.742795 -0.229057
-0.494519 7.596376 -0.242928
-0.514330 7.449956 -0.256799
-0.534141 7.303537 -0.270670
-0.653005 6.425020 -0.353897
-0.672816 6.278600 -0.367768
-0.692626 6.132181 -0.381639
-0.771869 5.546503 -0.437125
-0.791680 5.400083 -0.450995
-1.053256 5.420566 -0.483104
-1.031294 5.565883 -0.468953
-1.009331 5.711200 -0.454802
-0.987368 5.856518 -0.440652
-0.965405 6.001835 -0.426501
-0.943442 6.147153 -0.412351
-0.921479 6.292471 -0.398201
-0.899517 6.437788 -0.384050
-0.877554 6.583107 -0.369900
-0.855591 6.728424 -0.355749
-0.833628 6.873741 -0.341599
-0.811665 7.019058 -0.327448
-0.789702 7.164377 -0.313298
-0.767739 7.309694 -0.299148
-0.745777 7.455011 -0.284997
-0.723814 7.600330 -0.270847
-0.701851 7.745647 -0.256696
-0.557783 7.890037 -0.226973
-0.578758 7.744135 -0.241094
-0.599733 7.598234 -0.255215
-0.620707 7.452333 -0.269336
-0.641682 7.306431 -0.283458
-0.662657 7.160531 -0.297579
-0.683632 7.014629 -0.311700
-0.704607 6.868728 -0.325821
-0.725581 6.722827 -0.339942
-0.746556 6.576925 -0.354064
-0.767531 6.431024 -0.368185
-0.788506 6.285123 -0.382306
-0.809481 6.139223 -0.396427
-0.830456 5.993322 -0.410548
-0.851431 5.847419 -0.424670
-0.872405 5.701519 -0.438792
-0.893380 5.555618 -0.452913
-0.914355 5.409717 -0.467033
-1.016660 3.752474 -0.607390
-0.993416 3.752474 -0.603963
-0.974318 3.892558 -0.590871
-0.997334 3.892774 -0.594229
-0.955220 4.032640 -0.577778
-0.958682 4.173370 -0.567905
-0.917024 4.312805 -0.551592
-0.939356 4.313669 -0.554744
-0.897926 4.452888 -0.538499
-0.920030 4.453969 -0.541582
-0.878829 4.592970 -0.525406
-0.900704 4.594267 -0.528420
-1.131941 3.894037 -0.613871
-1.152602 3.752474 -0.627434
-1.111280 4.035599 -0.600307
-1.090619 4.177162 -0.586744
-1.069958 4.318724 -0.573180
-1.049298 4.460288 -0.559617
-1.028637 4.601850 -0.546053
-1.305366 3.752474 -0.645534
-1.283454 3.895480 -0.631748
-1.261541 4.038486 -0.617961
-1.239629 4.181491 -0.604175
-1.217716 4.324497 -0.590388
-1.195804 4.467502 -0.576602
-1.173891 4.610508 -0.562815
-0.860464 4.591881 -0.522875
-0.879370 4.451979 -0.535910
-0.898276 4.312078 -0.548945
-0.936088 4.032276 -0.575016
-1.032092 3.612890 -0.619824
-1.047523 3.473304 -0.632257
-1.325974 3.612875 -0.658689
-1.169783 3.612884 -0.640247
-1.346583 3.473277 -0.671844
-1.186963 3.473296 -0.653059
-0.997335 -3.871398 -0.594232
-0.978009 -4.011698 -0.581071
-0.958683 -4.151997 -0.567910
-0.917027 -4.291431 -0.551596
-0.920032 -4.432595 -0.541587
-0.897929 -4.431515 -0.538503
-0.900706 -4.572893 -0.528425
-1.152604 -3.731099 -0.627437
-1.131943 -3.872662 -0.613873
-1.111282 -4.014225 -0.600311
-1.090621 -4.155788 -0.586748
-1.069961 -4.297352 -0.573184
-1.049300 -4.438915 -0.559620
-1.028639 -4.580477 -0.546057
-1.305368 -3.731099 -0.645538
-1.283455 -3.874105 -0.631751
-1.261543 -4.017112 -0.617966
-1.239630 -4.160118 -0.604179
-1.217717 -4.303123 -0.590392
-1.195805 -4.446130 -0.576606
-1.173892 -4.589136 -0.562820
-0.879371 -4.430607 -0.535914
-0.898277 -4.290706 -0.548949
-1.032092 -3.591514 -0.619827
-1.047524 -3.451930 -0.632260
-1.169785 -3.591510 -0.640249
-1.325976 -3.591500 -0.658693
-1.186965 -3.451921 -0.653062
-1.346584 -3.451901 -0.671848
-1.074681 -1.579268 -0.803242
-1.076789 -1.776989 -0.785219
-1.059426 -2.370147 -0.727291
-1.226035 -1.381548 -0.848223
-1.227110 -1.579268 -0.829643
-1.228186 -1.776989 -0.811063
-1.229261 -1.974708 -0.792484
-1.230337 -2.172427 -0.773904
-1.231413 -2.370147 -0.755325
-1.402487 -2.370147 -0.776838
-1.402638 -2.172427 -0.795913
-1.402788 -1.974708 -0.814988
-1.402939 -1.776989 -0.834063
-1.403089 -1.579268 -0.853139
-1.039296 -2.370147 -0.724009
-1.078895 1.996082 -0.767195
-1.057153 2.193802 -0.745222
-1.081003 2.193802 -0.749172
-1.059425 2.391522 -0.727288
-1.226035 1.402923 -0.848221
-1.227110 1.600643 -0.829642
-1.228186 1.798362 -0.811062
-1.229261 1.996082 -0.792482
-1.230337 2.193802 -0.773903
-1.231412 2.391522 -0.755323
-1.402486 2.391522 -0.776835
-1.402637 2.193802 -0.795911
-1.402787 1.996082 -0.814986
-1.402938 1.798362 -0.834062
-1.403088 1.600643 -0.853137
-1.036883 2.193802 -0.741866
-1.039295 2.391522 -0.724008
-0.773968 1.945911 -0.729220
-0.775093 1.998371 -0.724743
-0.619240 1.945911 -0.708014
-0.620659 1.998370 -0.703696
-0.776218 2.050830 -0.720267
-0.777343 2.103290 -0.715791
-0.622078 2.050830 -0.699378
-0.623496 2.103290 -0.695060
-0.753776 0.990914 -0.806646
-0.755930 1.098058 -0.799534
-0.593818 0.990914 -0.783909
-0.596515 1.098058 -0.776446
-0.767615 1.649629 -0.754501
-0.770791 1.797770 -0.741860
-0.611229 1.649629 -0.732401
-0.615235 1.797770 -0.720207
-0.764438 1.501486 -0.767142
-0.607223 1.501486 -0.744594
-0.761261 1.353344 -0.779783
-0.603218 1.353344 -0.756787
-0.758084 1.205204 -0.792424
-0.599212 1.205204 -0.768981
-0.778469 2.155750 -0.711314
-0.780544 2.252541 -0.703055
-0.624915 2.155750 -0.690742
-0.627532 2.252541 -0.682775
-0.785748 2.497321 -0.682348
-0.782620 2.349332 -0.694795
-0.630149 2.349332 -0.674808
-0.491945 3.014192 -0.599523
-0.641739 3.014192 -0.617404
-0.643309 2.897268 -0.624348
-0.778388 3.301569 -0.613541
-0.769092 3.438365 -0.601868
-0.632837 3.301569 -0.596430
-0.626952 3.438365 -0.585170
-0.759797 3.575159 -0.590196
-0.621068 3.575159 -0.573910
-0.750502 3.711954 -0.578523
-0.615183 3.711954 -0.562651
-0.716703 4.054907 -0.547565
-0.701591 4.202129 -0.534178
-0.587918 4.054907 -0.532401
-0.575494 4.202129 -0.519299
-0.686479 4.349350 -0.520791
-0.563070 4.349350 -0.506198
-0.671367 4.496572 -0.507404
-0.550646 4.496572 -0.493096
-0.656255 4.643793 -0.494017
-0.538222 4.643793 -0.479995
-0.641143 4.791013 -0.480630
-0.525797 4.791013 -0.466893
-0.626031 4.938234 -0.467243
-0.513373 4.938234 -0.453792
-0.610919 5.085455 -0.453857
-0.500949 5.085455 -0.440690
-0.595807 5.232677 -0.440469
-0.488525 5.232677 -0.427588
-0.580694 5.379898 -0.427082
-0.476101 5.379898 -0.414486
-0.565582 5.527118 -0.413696
-0.463677 5.527118 -0.401385
-0.550470 5.674339 -0.400308
-0.451253 5.674339 -0.388284
-0.535358 5.821560 -0.386921
-0.438829 5.821560 -0.375181
-0.520246 5.968782 -0.373534
-0.426404 5.968782 -0.362079
-0.505134 6.116004 -0.360147
-0.413980 6.116004 -0.348978
-0.490022 6.263225 -0.346760
-0.401556 6.263225 -0.335876
-0.474910 6.410446 -0.333373
-0.389132 6.410446 -0.322775
-0.459798 6.557666 -0.319986
-0.376708 6.557666 -0.309673
-0.444686 6.704887 -0.306599
-0.364284 6.704887 -0.296571
-0.429573 6.852108 -0.293212
-0.351860 6.852108 -0.283470
-0.414461 6.999330 -0.279825
-0.339436 6.999330 -0.270368
-0.399349 7.146551 -0.266438
-0.327012 7.146551 -0.257267
-0.384237 7.293771 -0.253052
-0.314588 7.293771 -0.244165
-0.369125 7.440992 -0.239665
-0.302163 7.440992 -0.231064
-0.354013 7.588213 -0.226278
-0.289739 7.588213 -0.217962
-0.338901 7.735433 -0.212891
-0.277315 7.735433 -0.204860
-0.323789 7.882654 -0.199504
-0.264891 7.882654 -0.191759
-0.792005 2.793297 -0.657453
-0.641983 2.799634 -0.638787
-0.306127 8.054724 -0.183857
-0.250371 8.054724 -0.176445
-0.600342 3.907688 -0.545502
-0.300049 8.113928 -0.178474
-0.245373 8.113928 -0.171177
-0.638721 3.164774 -0.607689
-0.613440 3.752474 -0.559315
-0.608167 0.884552 -0.793738
-0.490367 3.131116 -0.592833
-0.640168 3.131116 -0.610460
-0.775094 -1.976996 -0.724745
-0.773969 -1.924536 -0.729222
-0.620660 -1.976996 -0.703698
-0.619242 -1.924537 -0.708016
-0.777344 -2.081915 -0.715793
-0.776219 -2.029455 -0.720269
-0.623497 -2.081915 -0.695062
-0.622079 -2.029455 -0.699380
-0.755930 -1.076684 -0.799536
-0.753776 -0.969539 -0.806646
-0.596515 -1.076684 -0.776447
-0.593819 -0.969539 -0.783911
-0.770792 -1.776396 -0.741862
-0.767615 -1.628253 -0.754503
-0.615236 -1.776396 -0.720209
-0.611230 -1.628253 -0.732402
-0.764438 -1.480112 -0.767144
-0.607224 -1.480112 -0.744596
-0.761261 -1.331971 -0.779785
-0.603218 -1.331971 -0.756789
-0.758084 -1.183828 -0.792425
-0.599212 -1.183828 -0.768982
-0.780545 -2.231166 -0.703057
-0.778469 -2.134374 -0.711316
-0.627533 -2.231166 -0.682777
-0.624916 -2.134374 -0.690744
-0.785749 -2.475946 -0.682350
-0.782620 -2.327957 -0.694798
-0.630150 -2.327957 -0.674810
-0.491946 -2.992818 -0.599525
-0.643309 -2.875893 -0.624351
-0.641740 -2.992818 -0.617406
-0.769093 -3.416989 -0.601871
-0.778389 -3.280195 -0.613543
-0.626954 -3.416989 -0.585173
-0.632838 -3.280195 -0.596433
-0.759798 -3.553784 -0.590199
-0.621069 -3.553784 -0.573913
-0.750503 -3.690578 -0.578526
-0.615185 -3.690578 -0.562654
-0.701751 -4.179208 -0.534323
-0.716864 -4.031987 -0.547710
-0.575626 -4.179208 -0.519441
-0.588050 -4.031987 -0.532543
-0.686639 -4.326428 -0.520935
-0.563202 -4.326428 -0.506339
-0.671528 -4.473650 -0.507548
-0.550778 -4.473650 -0.493239
-0.656415 -4.620871 -0.494161
-0.538353 -4.620871 -0.480137
-0.641303 -4.768092 -0.480775
-0.525930 -4.768092 -0.467035
-0.626192 -4.915313 -0.467389
-0.513505 -4.915313 -0.453934
-0.611079 -5.062534 -0.454002
-0.501081 -5.062534 -0.440832
-0.595967 -5.209754 -0.440615
-0.488658 -5.209754 -0.427731
-0.580856 -5.356976 -0.427229
-0.476233 -5.356976 -0.414630
-0.565743 -5.504197 -0.413842
-0.463809 -5.504197 -0.401529
-0.550631 -5.651419 -0.400455
-0.451385 -5.651419 -0.388427
-0.535520 -5.798640 -0.387068
-0.438961 -5.798640 -0.375326
-0.520407 -5.945860 -0.373681
-0.426537 -5.945860 -0.362224
-0.505295 -6.093081 -0.360294
-0.414113 -6.093081 -0.349123
-0.490184 -6.240303 -0.346908
-0.401689 -6.240303 -0.336021
-0.475072 -6.387524 -0.333521
-0.389265 -6.387524 -0.322920
-0.459959 -6.534745 -0.320134
-0.376841 -6.534745 -0.309818
-0.444848 -6.681966 -0.306747
-0.364417 -6.681966 -0.296717
-0.429736 -6.829186 -0.293360
-0.351993 -6.829186 -0.283615
-0.414623 -6.976408 -0.279973
-0.339569 -6.976408 -0.270513
-0.399511 -7.123629 -0.266587
-0.327145 -7.123629 -0.257412
-0.384400 -7.270850 -0.253199
-0.314721 -7.270850 -0.244310
-0.369287 -7.418071 -0.239813
-0.302297 -7.418071 -0.231209
-0.354176 -7.565291 -0.226426
-0.289873 -7.565291 -0.218107
-0.339064 -7.712512 -0.213039
-0.277449 -7.712512 -0.205006
-0.323793 -7.861281 -0.199511
-0.264895 -7.861281 -0.191766
-0.792006 -2.771923 -0.657455
-0.641985 -2.778259 -0.638789
-0.306130 -8.033348 -0.183865
-0.250374 -8.033348 -0.176453
-0.600343 -3.886313 -0.545506
-0.300052 -8.092550 -0.178482
-0.245377 -8.092550 -0.171185
-0.638722 -3.143400 -0.607691
-0.613442 -3.731099 -0.559319
-0.608167 -0.863177 -0.793739
-0.490369 -3.109742 -0.592836
-0.640170 -3.109742 -0.610462
0.459641 -1.074577 -0.711247
0.465123 -0.967409 -0.719210
0.426077 -1.699450 -0.664931
0.433097 -1.570023 -0.674519
0.440118 -1.440597 -0.684107
0.447138 -1.311171 -0.693695
0.454159 -1.181744 -0.703284
0.297591 -0.842616 -0.718655
0.472945 -0.844094 -0.729890
0.465123 0.988783 -0.719210
0.459641 1.095951 -0.711247
0.433098 1.591396 -0.674517
0.426078 1.720823 -0.664929
0.440118 1.461970 -0.684105
0.447138 1.332543 -0.693694
0.454159 1.203117 -0.703282
0.474427 0.842642 -0.731590
0.472944 0.865469 -0.729890
0.297590 0.863990 -0.718655
0.419057 1.850249 -0.655340
0.770446 3.018364 -0.581412
0.589198 3.016039 -0.573059
0.621889 3.438364 -0.551773
0.516572 3.437764 -0.546359
0.548380 3.300807 -0.555328
0.688736 3.301569 -0.562206
0.555043 3.575159 -0.541340
0.484765 3.574721 -0.537391
0.488197 3.711954 -0.530906
0.452958 3.711677 -0.528422
0.755582 3.164774 -0.572640
0.580187 3.163849 -0.564297
0.591229 3.130188 -0.566825
0.772029 3.131116 -0.575207
0.589197 -2.994665 -0.573062
0.770445 -2.996991 -0.581415
0.621888 -3.416990 -0.551777
0.688735 -3.280195 -0.562209
0.548379 -3.279433 -0.555330
0.516572 -3.416390 -0.546363
0.555042 -3.553784 -0.541342
0.484764 -3.553346 -0.537393
0.488196 -3.690579 -0.530911
0.452957 -3.690304 -0.528426
0.755581 -3.143400 -0.572641
0.772028 -3.109742 -0.575209
0.591228 -3.108814 -0.566828
0.580186 -3.142476 -0.564299
-5.795850 -0.141519 0.769138
-5.890570 -0.137172 0.884738
-5.851622 -0.140887 1.006362
-5.948605 -0.136266 1.121462
-6.045588 -0.131646 1.236561
-6.174726 -0.124131 1.231538
-6.142571 -0.127026 1.351660
-6.269446 -0.119784 1.347138
-6.239554 -0.122405 1.466759
-6.336537 -0.117785 1.581858
-6.458884 -0.111089 1.578338
-6.433521 -0.113164 1.696958
-6.553603 -0.106742 1.693939
-5.528827 0.135790 0.910651
-5.634309 0.131805 1.024135
-5.575239 0.010687 1.019182
-5.739792 0.127819 1.137618
-5.679434 0.010687 1.130189
-5.845274 0.123834 1.251101
-5.783628 0.010687 1.241196
-5.950756 0.119848 1.364585
-5.887823 0.010687 1.352203
-6.056238 0.115863 1.478068
-5.992017 0.010687 1.463210
-6.161720 0.111878 1.591552
-6.096211 0.010687 1.574218
-6.267203 0.107892 1.705035
-6.200407 0.010687 1.685223
-5.641733 0.151336 0.900957
-5.742966 0.147033 1.015248
-5.844199 0.142730 1.129540
-5.945432 0.138427 1.243831
-6.046663 0.134125 1.358122
-6.147897 0.129822 1.472413
-6.249129 0.125519 1.586705
-6.350363 0.121216 1.700996
-6.372686 -0.082532 1.818519
-6.267203 -0.086517 1.705035
-6.161720 -0.090503 1.591552
-6.056238 -0.094488 1.478068
-5.950756 -0.098474 1.364585
-5.845274 -0.102459 1.251101
-5.739792 -0.106444 1.137618
-5.634309 -0.110430 1.024135
-6.451595 -0.095538 1.815288
-6.350363 -0.099841 1.700996
-6.249129 -0.104144 1.586705
-6.147897 -0.108447 1.472413
-6.046663 -0.112750 1.358122
-5.945431 -0.117053 1.243831
-5.844199 -0.121355 1.129540
-5.742966 -0.125658 1.015248
-5.393861 0.158865 0.613403
-5.274573 0.143002 0.625599
-5.585402 -0.151741 0.688686
-5.467180 -0.135877 0.700035
-5.348959 -0.120014 0.711383
-5.340014 -0.158354 0.330145
-5.217423 0.163867 0.344965
-5.094831 0.148002 0.359784
-5.217423 -0.142491 0.344965
-5.390455 0.178035 0.421938
-5.340014 0.179729 0.330145
-5.477650 0.171727 0.320971
-5.530433 0.169909 0.413205
-5.440896 0.176342 0.513730
-5.585402 0.173115 0.688686
-5.513148 0.174728 0.601208
-5.657656 0.171502 0.776164
-5.851623 0.162262 1.006362
-5.754639 0.166882 0.891263
-5.948606 0.157642 1.121462
-6.045588 0.153021 1.236561
-6.142572 0.148401 1.351660
-6.239555 0.143781 1.466759
-6.336538 0.139160 1.581858
-6.458885 0.132465 1.578338
-6.433521 0.134540 1.696958
-6.553605 0.128118 1.693939
-6.530504 0.129920 1.812057
-6.627488 0.125299 1.927156
-6.743908 0.162089 2.172626
-6.743759 0.119832 2.280889
-6.743759 0.010687 2.306104
-6.743759 0.010687 2.306104
-6.822439 0.118304 2.279573
-6.822439 0.010687 2.304796
-6.822439 0.010687 2.304796
-6.901119 0.116775 2.278259
-6.901119 0.010687 2.303489
-6.901119 0.010687 2.303489
-6.979799 0.115246 2.276945
-6.979799 0.010687 2.302182
-6.979799 0.010687 2.302182
-6.743908 -0.134897 2.068040
-6.822439 -0.096929 2.279573
-6.901119 -0.095400 2.278259
-6.979799 -0.093871 2.276945
-6.801002 0.064160 2.104722
-6.759190 0.064170 2.177944
-8.397930 -2.263071 2.221121
-8.378160 -2.115887 2.220276
-8.467140 -2.118094 2.213758
-8.358388 -1.968702 2.219430
-8.450769 -1.970725 2.212679
-8.338617 -1.821518 2.218585
-8.434396 -1.823357 2.211599
-8.318846 -1.674333 2.217739
-8.418024 -1.675989 2.210520
-8.299074 -1.527149 2.216894
-8.401651 -1.528621 2.209440
-8.279305 -1.379964 2.216050
-8.385279 -1.381252 2.208361
-8.259532 -1.232780 2.215204
-8.368907 -1.233884 2.207282
-8.239761 -1.085595 2.214358
-8.352533 -1.086515 2.206202
-8.219990 -0.938410 2.213512
-8.336162 -0.939147 2.205122
-8.200218 -0.791226 2.212667
-8.319789 -0.791779 2.204041
-8.180449 -0.644041 2.211822
-8.303417 -0.644410 2.202961
-8.226764 -2.258289 2.233686
-8.133745 -2.111472 2.238202
-8.200195 -2.111472 2.233310
-8.104616 -1.964655 2.238000
-8.173627 -1.964655 2.232933
-8.075487 -1.817838 2.237798
-8.147058 -1.817838 2.232556
-8.017229 -1.524204 2.237393
-8.093921 -1.524205 2.231802
-7.988099 -1.377387 2.237192
-8.067352 -1.377388 2.231427
-7.958971 -1.230570 2.236989
-8.040784 -1.230571 2.231049
-7.929842 -1.083753 2.236786
-8.014215 -1.083754 2.230671
-7.900713 -0.936936 2.236585
-7.987645 -0.936937 2.230296
-7.961078 -0.790120 2.229918
-7.934508 -0.643303 2.229542
-8.396858 -0.497044 2.193976
-8.410247 -0.644412 2.195260
-8.423637 -0.791780 2.196544
-8.437026 -0.939149 2.197826
-8.450415 -1.086517 2.199110
-8.463804 -1.233885 2.200393
-8.477194 -1.381253 2.201675
-8.490583 -1.528621 2.202957
-8.503972 -1.675990 2.204240
-8.517362 -1.823358 2.205523
-8.530750 -1.970726 2.206806
-8.544140 -2.118094 2.208089
-8.397928 2.284445 2.221124
-8.467140 2.139469 2.213761
-8.378158 2.137261 2.220278
-8.450768 1.992100 2.212681
-8.358387 1.990076 2.219432
-8.434395 1.844732 2.211601
-8.338615 1.842892 2.218587
-8.418022 1.697364 2.210522
-8.318844 1.695707 2.217741
-8.401649 1.549995 2.209442
-8.299072 1.548523 2.216896
-8.385278 1.402627 2.208361
-8.279302 1.401338 2.216050
-8.368905 1.255258 2.207282
-8.259531 1.254154 2.215205
-8.352533 1.107890 2.206202
-8.239759 1.106969 2.214358
-8.336161 0.960522 2.205122
-8.219989 0.959785 2.213512
-8.319789 0.813153 2.204041
-8.200218 0.812600 2.212667
-8.303415 0.665785 2.202961
-8.180447 0.665416 2.211822
-8.226763 2.279662 2.233689
-8.200195 2.132846 2.233313
-8.133743 2.132846 2.238204
-8.147057 1.839212 2.232559
-8.075487 1.839211 2.237800
-8.120487 1.692395 2.232182
-8.046358 1.692394 2.237597
-8.093920 1.545578 2.231805
-8.017229 1.545578 2.237395
-8.067350 1.398761 2.231428
-7.988099 1.398761 2.237192
-8.040783 1.251944 2.231050
-7.958971 1.251944 2.236989
-8.014214 1.105127 2.230672
-7.987645 0.958311 2.230297
-7.900713 0.958310 2.236585
-7.961077 0.811494 2.229919
-7.871584 0.811493 2.236382
-7.934508 0.664677 2.229543
-8.396858 0.518419 2.193976
-8.410247 0.665787 2.195260
-8.423635 0.813155 2.196544
-8.437025 0.960523 2.197826
-8.450414 1.107892 2.199110
-8.463802 1.255260 2.200393
-8.477193 1.402628 2.201675
-8.490582 1.549997 2.202960
-8.503971 1.697365 2.204243
-8.517360 1.844733 2.205526
-8.530748 1.992102 2.206809
-8.544139 2.139470 2.208092
-7.699921 -2.081422 2.254156
-7.790832 -2.081393 2.252162
-7.746389 -1.937092 2.252423
-7.701946 -1.792791 2.252683
-7.657505 -1.648490 2.252943
-7.613063 -1.504189 2.253204
-7.568620 -1.359887 2.253466
-7.524178 -1.215586 2.253726
-7.353756 -1.071309 2.255890
-7.479735 -1.071285 2.253985
-7.304303 -0.927007 2.256137
-7.435292 -0.926984 2.254247
-7.390850 -0.782682 2.254508
-7.346408 -0.638381 2.254767
-7.806641 -0.493972 2.236145
-7.835272 -0.638274 2.236343
-7.863901 -0.782577 2.236544
-7.892531 -0.926880 2.236742
-7.921162 -1.071183 2.236943
-7.949793 -1.215486 2.237143
-7.978422 -1.359788 2.237341
-8.007053 -1.504091 2.237540
-8.035683 -1.648394 2.237739
-8.064314 -1.792697 2.237939
-8.092943 -1.937000 2.238139
-8.121574 -2.081302 2.238338
-7.447982 -0.494058 2.253176
-7.487414 -0.638359 2.252903
-7.526847 -0.782659 2.252630
-7.566279 -0.926960 2.252356
-7.605713 -1.071260 2.252082
-7.645145 -1.215561 2.251810
-7.684578 -1.359861 2.251536
-7.724010 -1.504162 2.251262
-7.763443 -1.648463 2.250989
-7.802876 -1.792763 2.250716
-7.842308 -1.937063 2.250442
-7.881741 -2.081364 2.250169
-7.567534 -0.494029 2.247499
-7.603367 -0.638331 2.247384
-7.639197 -0.782632 2.247268
-7.675031 -0.926933 2.247151
-7.710862 -1.071234 2.247036
-7.746695 -1.215536 2.246921
-7.782526 -1.359837 2.246806
-7.818357 -1.504138 2.246688
-7.854190 -1.648440 2.246572
-7.890020 -1.792741 2.246457
-7.925853 -1.937042 2.246342
-7.961684 -2.081343 2.246225
-7.790830 2.102767 2.252165
-7.746387 1.958465 2.252426
-7.701944 1.814164 2.252686
-7.657502 1.669863 2.252946
-7.613061 1.525562 2.253207
-7.502111 1.525588 2.255149
-7.568618 1.381260 2.253467
-7.452660 1.381286 2.255395
-7.524176 1.236959 2.253726
-7.403207 1.236984 2.255642
-7.479733 1.092658 2.253986
-7.435291 0.948357 2.254248
-7.390850 0.804056 2.254508
-7.346408 0.659755 2.254767
-7.806641 0.515346 2.236145
-7.835272 0.659649 2.236343
-7.863901 0.803951 2.236544
-7.892531 0.948254 2.236742
-7.921162 1.092557 2.236943
-7.949793 1.236859 2.237143
-7.978422 1.381162 2.237341
-8.007053 1.525465 2.237542
-8.035683 1.669768 2.237741
-8.064314 1.814070 2.237941
-8.092943 1.958373 2.238141
-8.121574 2.102676 2.238340
-7.447982 0.515432 2.253177
-7.487413 0.659732 2.252903
-7.526847 0.804033 2.252630
-7.566278 0.948334 2.252357
-7.605712 1.092634 2.252084
-7.645144 1.236935 2.251811
-7.684577 1.381235 2.251536
-7.724009 1.525536 2.251265
-7.763442 1.669836 2.250991
-7.802875 1.814137 2.250718
-7.842306 1.958438 2.250445
-7.881740 2.102738 2.250172
-7.567534 0.515403 2.247499
-7.603367 0.659704 2.247384
-7.639197 0.804006 2.247268
-7.675030 0.948307 2.247151
-7.710861 1.092608 2.247036
-7.746694 1.236910 2.246921
-7.782525 1.381211 2.246806
-7.818357 1.525512 2.246690
-7.854189 1.669813 2.246575
-7.890020 1.814115 2.246459
-7.925853 1.958416 2.246344
-7.961684 2.102718 2.246228
-7.210614 -0.679143 2.256431
-7.147175 -0.679034 2.253777
-7.258200 -0.817997 2.256196
-7.195612 -0.817899 2.253583
-7.305784 -0.956851 2.255960
-7.244049 -0.956764 2.253392
-7.353370 -1.095706 2.255725
-7.292484 -1.095629 2.253199
-7.400954 -1.234559 2.255491
-7.340922 -1.234494 2.253006
-7.448540 -1.373412 2.255256
-7.389359 -1.373359 2.252813
-7.496124 -1.512266 2.255019
-7.437796 -1.512223 2.252620
-7.543710 -1.651120 2.254784
-7.486233 -1.651088 2.252427
-7.591294 -1.789974 2.254549
-7.534670 -1.789953 2.252234
-7.638881 -1.928828 2.254314
-7.583107 -1.928818 2.252042
-7.686465 -2.067681 2.254079
-7.631542 -2.067683 2.251849
-7.734051 -2.206535 2.253844
-7.679979 -2.206547 2.251656
-7.781635 -2.345389 2.253609
-7.728416 -2.345412 2.251464
-6.979400 -0.539947 2.115745
-7.029417 -0.678833 2.118824
-7.079434 -0.817718 2.121903
-7.129452 -0.956603 2.124984
-7.179470 -1.095489 2.128064
-7.229487 -1.234374 2.131143
-7.279505 -1.373260 2.134222
-7.329522 -1.512145 2.137300
-7.379540 -1.651031 2.140380
-7.429558 -1.789916 2.143459
-7.479575 -1.928801 2.146539
-7.529593 -2.067687 2.149618
-7.579611 -2.206572 2.152697
-7.629628 -2.345458 2.155777
-6.940387 -0.539949 2.183089
-6.991186 -0.678834 2.184525
-7.041987 -0.817720 2.185963
-7.092788 -0.956606 2.187400
-7.143589 -1.095492 2.188838
-7.194389 -1.234377 2.190276
-7.245190 -1.373263 2.191712
-7.295991 -1.512149 2.193149
-7.346790 -1.651034 2.194587
-7.397592 -1.789920 2.196024
-7.448392 -1.928806 2.197461
-7.499192 -2.067692 2.198899
-7.549994 -2.206577 2.200336
-7.600794 -2.345463 2.201773
-7.629628 -2.345457 2.247482
-7.579611 -2.206571 2.247596
-7.529593 -2.067686 2.247710
-7.479575 -1.928801 2.247824
-7.429559 -1.789916 2.247938
-7.379541 -1.651030 2.248052
-7.329524 -1.512145 2.248166
-7.279506 -1.373259 2.248281
-7.229488 -1.234374 2.248394
-7.179471 -1.095489 2.248508
-7.129453 -0.956603 2.248622
-7.079435 -0.817718 2.248737
-7.029418 -0.678832 2.248852
-7.147174 0.700408 2.253777
-7.210614 0.700517 2.256431
-7.195610 0.839273 2.253583
-7.258200 0.839371 2.256196
-7.244046 0.978137 2.253392
-7.305784 0.978224 2.255960
-7.292483 1.117002 2.253199
-7.353370 1.117078 2.255725
-7.340920 1.255867 2.253006
-7.400954 1.255932 2.255491
-7.389358 1.394732 2.252813
-7.448540 1.394786 2.255256
-7.437795 1.533597 2.252622
-7.496124 1.533640 2.255021
-7.486232 1.672462 2.252429
-7.543710 1.672493 2.254786
-7.534669 1.811326 2.252236
-7.591294 1.811347 2.254551
-7.583104 1.950191 2.252044
-7.638880 1.950201 2.254316
-7.631541 2.089056 2.251851
-7.686464 2.089055 2.254081
-7.679978 2.227921 2.251658
-7.734050 2.227909 2.253846
-7.728415 2.366786 2.251466
-7.781634 2.366763 2.253611
-6.979400 0.561321 2.115745
-7.029417 0.700206 2.118824
-7.079434 0.839091 2.121903
-7.129452 0.977977 2.124984
-7.179470 1.116862 2.128064
-7.229487 1.255748 2.131143
-7.279505 1.394633 2.134222
-7.329522 1.533519 2.137302
-7.379540 1.672404 2.140382
-7.429558 1.811290 2.143461
-7.479574 1.950175 2.146541
-7.529593 2.089060 2.149620
-7.579611 2.227946 2.152699
-7.629627 2.366831 2.155779
-6.940387 0.561321 2.183089
-6.991186 0.700207 2.184525
-7.041987 0.839093 2.185963
-7.092788 0.977979 2.187400
-7.143589 1.116864 2.188838
-7.194389 1.255750 2.190276
-7.245190 1.394636 2.191712
-7.295991 1.533522 2.193151
-7.346790 1.672408 2.194589
-7.397592 1.811294 2.196026
-7.448392 1.950180 2.197463
-7.499192 2.089065 2.198901
-7.549993 2.227951 2.200338
-7.600794 2.366837 2.201776
-7.629628 2.366831 2.247484
-7.579611 2.227945 2.247598
-7.529593 2.089060 2.247712
-7.479575 1.950174 2.247826
-7.429559 1.811289 2.247940
-7.379541 1.672403 2.248054
-7.329524 1.533518 2.248168
-7.279506 1.394633 2.248281
-7.229488 1.255747 2.248394
-7.179471 1.116862 2.248508
-7.129453 0.977977 2.248622
-7.079435 0.839091 2.248737
-7.029418 0.700206 2.248852
-8.034309 -0.496672 2.220070
-8.057478 -0.643672 2.220682
-8.080648 -0.790673 2.221292
-8.103818 -0.937674 2.221904
-8.126987 -1.084675 2.222516
-8.150158 -1.231675 2.223126
-8.173328 -1.378676 2.223738
-8.196498 -1.525677 2.224348
-8.219667 -1.672677 2.224959
-8.242838 -1.819678 2.225570
-8.266008 -1.966679 2.226181
-8.289178 -2.113679 2.226793
-8.312347 -2.260680 2.227404
-8.125759 -0.234870 2.209454
-8.110614 -0.120067 2.208776
-8.057478 0.665046 2.220683
-8.034309 0.518046 2.220070
-8.080648 0.812047 2.221293
-8.103817 0.959048 2.221905
-8.126987 1.106048 2.222516
-8.150157 1.253049 2.223127
-8.173326 1.400050 2.223739
-8.196497 1.547050 2.224350
-8.219667 1.694051 2.224961
-8.242836 1.841052 2.225573
-8.266006 1.988052 2.226184
-8.289176 2.135053 2.226795
-8.110614 0.141441 2.208776
-8.125759 0.256244 2.209453
-8.073860 -2.225625 2.242324
-8.041629 -2.081323 2.242282
-8.009399 -1.937021 2.242240
-7.977167 -1.792719 2.242198
-7.944936 -1.648417 2.242156
-7.912705 -1.504115 2.242114
-7.880475 -1.359813 2.242074
-7.848243 -1.215511 2.242032
-7.816012 -1.071209 2.241990
-7.783781 -0.926907 2.241948
-7.751550 -0.782605 2.241906
-7.719318 -0.638303 2.241864
-7.687088 -0.494001 2.241822
-7.654857 -0.349698 2.241779
-7.613130 -0.162868 2.241724
-8.117405 -2.420574 2.242381
-8.106092 -2.369927 2.242366
-7.639945 -0.282915 2.241761
-8.041629 2.102697 2.242284
-8.073860 2.246999 2.242326
-8.009399 1.958395 2.242242
-7.977166 1.814093 2.242200
-7.944936 1.669790 2.242158
-7.912704 1.525489 2.242116
-7.880473 1.381186 2.242074
-7.848243 1.236885 2.242032
-7.816011 1.092582 2.241990
-7.783781 0.948281 2.241948
-7.751550 0.803979 2.241906
-7.719318 0.659677 2.241864
-7.687088 0.515375 2.241822
-7.654857 0.371073 2.241779
-7.613130 0.184242 2.241724
-8.106092 2.391301 2.242368
-8.117404 2.441949 2.242383
-7.639945 0.304289 2.241761
1.697147 -0.694139 0.050598
1.573781 -0.700366 0.062814
1.569862 -0.715539 -0.004594
1.670036 -0.711908 -0.012535
1.687939 -0.664616 0.151100
1.568162 -0.676412 0.153927
1.693415 -0.625622 0.247551
1.568056 -0.644935 0.241049
2.066173 -0.649869 0.033480
2.068022 -0.631976 0.072306
1.980321 -0.662753 0.045539
1.985288 -0.636974 0.104450
1.924185 -0.641105 0.128478
1.924113 -0.664409 0.070977
1.478416 -0.701350 0.074334
1.487031 -0.714094 0.012540
1.471114 -0.681861 0.153637
1.405357 -0.683543 0.152235
1.415992 -0.700228 0.082167
1.440385 -0.709371 0.037013
1.474163 -0.656635 0.230084
1.414131 -0.662379 0.220695
1.977748 -0.606229 0.166427
1.921279 -0.611808 0.185492
-1.094853 -0.724410 0.019881
-1.102404 -0.706049 0.103118
-1.161433 -0.722503 0.030458
-1.174695 -0.706446 0.103081
0.372147 -0.706223 0.102506
0.300077 -0.706611 0.102336
-1.094859 -0.680289 0.186335
-1.161451 -0.683981 0.175697
0.379678 -0.681090 0.185979
0.313317 -0.684661 0.175255
-0.114656 -0.724048 0.019492
-0.122217 -0.705982 0.102514
-0.181200 -0.722102 0.030249
-0.194461 -0.706265 0.102760
-0.114668 -0.680593 0.185964
-0.181215 -0.684138 0.175518
1.697147 0.715513 0.050598
1.670036 0.733280 -0.012535
1.569862 0.736913 -0.004593
1.573781 0.721740 0.062814
1.687939 0.685989 0.151100
1.568162 0.697786 0.153927
1.693415 0.646996 0.247552
1.568056 0.666308 0.241050
2.066173 0.671244 0.033481
2.068022 0.653349 0.072306
1.980321 0.684127 0.045539
1.924113 0.685783 0.070977
1.924184 0.662478 0.128480
1.985288 0.658348 0.104450
1.478416 0.722723 0.074334
1.487031 0.735468 0.012540
1.415992 0.721602 0.082167
1.440385 0.730745 0.037013
1.405357 0.704917 0.152235
1.471114 0.703235 0.153638
1.474163 0.678010 0.230085
1.414131 0.683753 0.220695
2.067087 0.633013 0.110855
1.977748 0.627604 0.166427
1.921279 0.633182 0.185492
-1.094852 0.745785 0.019881
-1.102404 0.727423 0.103118
-1.161433 0.743878 0.030458
-1.174694 0.727820 0.103082
0.379757 0.745503 0.019510
0.372147 0.727600 0.102506
0.313357 0.743635 0.029979
0.300077 0.727986 0.102337
-1.094858 0.701663 0.186335
-1.161451 0.705356 0.175697
0.379678 0.702466 0.185979
0.313318 0.706037 0.175255
-0.114656 0.745421 0.019492
-0.122217 0.727356 0.102514
-0.181200 0.743476 0.030249
-0.194461 0.727642 0.102760
-0.114668 0.701968 0.185964
-0.181215 0.705512 0.175518
-0.601209 0.745676 0.019677
-0.608757 0.727494 0.102801
-0.667779 0.743805 0.030384
-0.681032 0.727902 0.102958
-0.601215 0.701882 0.186136
-0.667797 0.705567 0.175627
1.487921 0.740466 -0.011377
1.568117 0.742784 -0.030713
2.143723 -0.235844 0.350279
2.123045 -0.416078 0.285737
2.341453 -0.429138 0.164270
2.380291 -0.213841 0.225973
2.016872 -0.416959 0.346737
2.061083 -0.244954 0.390813
2.143723 0.257217 0.350279
2.380291 0.235215 0.225973
2.341453 0.450511 0.164270
2.123045 0.437452 0.285737
-6.123648 0.010687 1.921825
-6.076157 0.010687 1.908153
-6.124351 0.004796 1.919612
-6.076859 0.004796 1.905939
0.297569 0.010686 0.605934
0.371296 0.010686 0.587119
0.296800 0.003480 0.603201
0.370527 0.003480 0.584386
-5.226976 0.021330 0.786385
-5.201877 0.027410 0.729434
-5.352242 0.027700 0.740011
-5.378991 0.021330 0.800408
-5.226976 0.000044 0.786385
-5.378991 0.000044 0.800408
-5.352242 -0.009709 0.740011
-5.201877 -0.009216 0.729434
-6.910069 0.010687 2.363718
-6.912011 0.019080 2.362463
-6.989175 0.017189 2.467991
-6.987704 0.010687 2.468941
-7.015989 0.010687 2.507292
-7.017291 0.016507 2.506452
2.229819 -2.270524 -0.321673
2.229941 -2.216774 -0.425759
2.167231 -2.212359 -0.424861
2.167232 -2.266869 -0.319356
2.231053 -2.194317 -0.539780
2.167890 -2.189329 -0.540511
2.154700 -2.188142 -0.541388
2.154538 -2.211388 -0.425161
2.229780 -2.462325 -0.189758
2.229780 -2.355616 -0.241227
2.167232 -2.352996 -0.237886
2.167233 -2.460947 -0.185797
2.229780 -2.699535 -0.189758
2.229780 -2.580930 -0.172603
2.167233 -2.580930 -0.168434
2.167233 -2.700915 -0.185797
